3.95052719 -3.24773765 -11.35820293
2.63392186 -3.95689940 -13.84641552
4.00429392 -0.76010138 -10.13888645
-1.78357506 -0.79755366 -14.35173130
-3.28125834 -2.87067413 -16.88640785
-0.64479911 2.45274973 -9.51651764
-0.96623552 2.90123987 -9.12876129
-2.40170240 -1.38494289 -11.26783371
2.05215216 -4.08982897 -14.84796333
-3.85199499 -2.98220944 -14.67198467
1.33293891 4.67641306 -13.42021561
-1.62728286 0.11201203 -15.57708168
-3.27211738 -2.54694104 -12.72511005
-2.89128542 1.57103729 -8.94599152
-0.41690710 -3.64042926 -8.80448532
1.75510192 -0.65763098 -12.47228336
2.86643505 -3.94336057 -10.29461193
3.24769020 1.06437957 -16.93297195
1.72482622 0.23993222 -14.03748226
-3.49642324 4.05024958 -10.70193291
-4.08408737 -0.44584090 -9.11300468
-0.97834569 4.24060631 -11.69131947
-4.02806664 3.69983745 -9.32742119
-1.66569006 4.11380291 -12.57187462
-2.93921328 0.42310867 -15.19667435
-1.28570437 3.94665933 -9.25264359
4.04507446 3.43582869 -10.03046989
0.64706725 -0.20298585 -15.64571667
-3.34195614 -3.98808813 -12.03684139
1.46554840 1.56254554 -10.13772202
-2.96472526 -1.23387456 -14.90136814
3.81294274 1.78554702 -10.91106987
-2.70079565 -0.89711523 -10.70547199
-1.57860219 -3.95138192 -8.90137672
-4.01868534 -3.42570710 -13.29092979
-3.97370458 2.56859231 -14.31175709
-4.03390837 -3.50562382 -10.09835434
-2.60859299 -2.18889618 -12.41738224
-1.23913515 -4.02123308 -11.37316895
-2.99728203 -2.52933812 -12.46594810
-0.88354278 4.94065714 -13.78703022
-2.95377636 2.15604734 -16.90180969
2.69552517 2.07011867 -8.95901871
2.79196215 -3.27160382 -16.88114166
-3.44903541 -3.95221233 -9.86491776
-1.39762509 3.71119022 -16.91019058
-3.96835661 2.80608702 -10.41910267
-2.69642448 -0.78187031 -16.41217232
1.56451941 3.92249179 -15.68421173
-2.11786175 -2.03427482 -13.10422897
-0.00532823 -5.32722378 -12.46460819
-2.26420283 1.00503945 -9.67157173
-1.93807793 -0.35233477 -15.54513168
-2.48766160 -4.02516031 -14.79827881
-1.39848590 4.34262514 -13.17029572
-2.33991289 0.08602590 -15.08325195
2.18379855 -0.99113870 -15.96808815
-2.05856299 -3.79588389 -16.98717308
-2.11630821 3.05896401 -8.90435410
-1.48847389 -3.93287587 -15.80597591
-1.98141718 1.38250804 -16.06806374
3.96389532 3.49159050 -11.13004112
3.98646283 -1.51890874 -16.89214325
4.02096653 -2.53758979 -9.16830158
3.00524092 2.13224196 -16.96361542
-1.11217165 2.39972806 -9.66143036
0.47415116 3.89468980 -10.86055946
0.17400263 3.98675179 -9.90718079
-2.13326716 1.12854755 -14.60881138
-4.00809002 0.90558285 -9.66737843
1.90093553 -1.56038988 -9.92491722
-3.01047945 -4.00023651 -13.92354393
3.70686436 -4.00403738 -11.03890705
-3.94909906 3.65000439 -15.75792980
2.62335658 -3.25557661 -8.93894768
-3.75805593 2.49877071 -13.63576221
1.91737580 -3.20039296 -8.96920300
4.04491997 -0.63516921 -16.38554001
3.70100260 1.81778419 -8.81443787
3.90835261 1.35251093 -16.20057297
-1.15228891 3.95560241 -10.69519615
0.44508368 -2.54150867 -16.27093697
3.09239197 -0.76144910 -10.73261547
-1.15043104 4.62080860 -11.92038345
2.85904860 -2.01498938 -8.81684875
3.93719268 -2.29977679 -15.49209213
3.06068397 -3.99530292 -16.49862099
-2.53040528 0.78671741 -15.19650841
0.42269930 -3.42267275 -16.93594360
-3.90662193 -2.70072842 -16.44288254
3.93250561 1.81103754 -15.60018730
3.96725702 -2.74237394 -15.66405296
-2.75453639 1.92113864 -14.26906776
2.52083349 1.90728521 -11.74184704
-2.25280476 -3.96644735 -11.97084236
1.94284964 0.36865073 -10.28439617
4.02942991 -3.93170786 -14.10597992
0.68832183 3.96165514 -15.35534286
1.15038240 3.80104971 -8.91893578
-0.07482956 -4.01379633 -16.02888298
3.98099589 -1.01956058 -16.73191452
-4.00852966 3.80707860 -16.45328903
-3.15569687 1.55833352 -16.86082268
3.58551097 3.88348317 -14.97031784
-3.95539069 -2.14284301 -8.83126926
-3.78721690 1.03925931 -15.36945724
1.32219660 -4.56715441 -12.46985149
-2.03270364 -4.11992741 -11.77076912
1.94894481 -0.79957718 -10.10042953
-3.94849038 -1.02201188 -9.03532124
-3.41591907 0.72247225 -15.40518856
-2.50870943 -0.73980653 -16.33697701
2.55116820 -4.10717535 -12.48258781
-0.31190863 2.68716145 -9.49228859
-0.17064011 -3.99012280 -10.04482841
-2.78172755 -0.21079576 -16.55993271
3.55729866 2.39930415 -13.92664337
3.79532862 4.05717182 -14.45222664
3.95600152 -3.69142580 -14.58490467
4.01861191 -1.05188429 -9.66623211
-0.87240970 5.19676113 -13.61485958
3.85767770 -3.98745847 -10.96339417
4.03202009 3.14122581 -10.11449242
-3.85755563 -2.46874261 -11.80495834
-2.19437027 1.66244054 -13.81021023
-1.70648515 -0.16161279 -11.70027351
3.01211810 3.98298931 -12.11934662
-3.27139091 3.95394874 -16.13187408
-4.07184505 3.39982128 -10.60843468
1.74930871 -0.65317613 -14.06736565
1.80832171 -0.25062233 -12.92440033
2.17669702 -0.44424766 -10.84446621
4.00095701 3.49988437 -9.16779041
-3.69432664 -2.58915424 -13.11960793
0.63344854 3.69224620 -16.89731216
-4.00771952 0.23230788 -16.73077583
-2.49731183 4.12418318 -14.38135719
1.49352264 4.01525259 -10.36462212
3.17220783 -1.77207291 -11.19796181
1.26803172 -2.45653653 -16.55984688
-1.49661589 -2.30512881 -16.70035553
-2.15974116 -1.95419931 -11.87214756
-0.48868686 5.20256519 -13.78900337
-2.34272170 4.00254583 -13.36692333
3.30731153 -2.19244838 -16.89902687
0.24976966 4.13485241 -9.52210045
-3.34478474 -3.82688332 -9.24216843
-4.00886965 -2.55477810 -9.91690826
1.48161519 -4.35000563 -12.99802208
1.88254130 0.78136498 -10.09293938
-2.10350466 4.05110979 -9.81885052
2.31190848 1.41805363 -9.31965351
4.05498219 0.04506091 -16.59524155
4.01365185 2.19012833 -9.80545521
-2.57081342 -4.02685356 -9.15325546
-2.28542638 -3.98244500 -11.44633770
-3.35687590 2.72668433 -16.82890129
3.49945784 1.60261035 -14.87489510
2.38162208 -2.86869740 -16.94798470
2.12847495 0.82546186 -11.07329464
-0.40713114 -2.79327798 -16.63796997
-1.18996668 -2.24534750 -16.03457832
2.18357253 4.04583073 -16.64623833
-2.45021343 1.60940075 -14.60938454
-0.76156062 4.72912025 -11.82107639
-1.68607223 1.52488017 -15.80752182
-3.52548289 4.09213781 -11.85431385
1.92247593 -3.90843058 -13.59804535
3.91700101 2.09232783 -14.91281986
-2.65612531 3.84599733 -16.86497307
4.02900553 -2.90607715 -12.63475132
3.98672724 -1.46991479 -15.56320667
-3.99891591 -1.42431748 -9.44636726
1.85096073 0.64510214 -11.12509155
-1.79838169 -4.09824705 -15.51772881
-2.54912353 -2.28191876 -16.83559990
-2.57545161 -2.00312138 -14.14143944
-4.09657621 -3.05157161 -10.40830326
-3.13768816 3.61664128 -8.80638695
3.99714494 -0.01872588 -9.93139076
-1.57636356 2.84702134 -16.86450577
-1.38632309 1.81437635 -10.02035713
-0.28356966 2.80034256 -9.33390331
0.89356458 -0.33661419 -15.54705906
-2.37127185 0.97476053 -15.04149246
3.67110515 0.29485631 -10.35734272
1.64549923 0.22667642 -12.96318340
1.74421239 -0.29778999 -13.90455437
3.91090894 3.77785540 -16.16846085
1.55816817 -2.73904777 -16.97935867
-1.74120069 -1.00407398 -15.67083168
3.92876530 2.66029644 -15.61933994
-2.67753458 0.51720029 -16.45421219
3.93645287 -3.94366121 -16.75755310
-0.90771687 4.15444994 -14.21917248
2.83887148 2.39057183 -12.82814503
3.37613297 0.72331434 -8.94943142
-1.03847504 1.72702432 -10.33308125
-3.90558863 -2.12353206 -14.59645367
-3.63307571 2.19152737 -14.18053055
-4.01863432 2.92920375 -14.74923801
3.50799155 4.09143448 -12.54836464
4.08991623 -3.88939095 -11.88132572
3.80392718 0.13517450 -16.97082138
4.10060310 3.92184544 -10.21452427
3.18293548 0.70468152 -10.45096207
-1.69493520 0.59078950 -13.02765465
3.08894086 -3.95956182 -14.07885742
-2.81280899 -4.01097631 -9.27370071
-1.46829712 -4.46717596 -12.55157375
3.36608458 3.62512136 -16.90437889
3.70553851 -4.05630779 -12.03772354
3.05219984 -2.48511195 -12.52930355
-1.60282505 1.52407396 -10.13495445
-0.96236831 3.99392128 -16.37687683
0.34421679 -3.08079267 -16.84300995
-3.49942183 2.62109947 -8.92090988
-3.95814371 0.59973741 -8.86912251
-3.20343900 1.09891498 -8.93637848
-0.55377764 3.64217734 -17.00148201
0.50462711 -4.01656818 -11.35507298
1.80775523 -1.43229568 -12.43848228
0.00614157 -0.03572207 -15.42477036
-0.25008538 -2.62297273 -16.27012444
-3.34700990 3.98293376 -12.69347858
1.73399603 0.37063059 -13.38259506
1.58702111 -0.03614537 -15.47672939
0.12819551 1.08023143 -10.28584862
-4.06931591 1.05216205 -16.48823357
-2.78425765 -2.46170044 -8.87346935
4.02720261 1.34472263 -9.29599380
0.34632656 -4.09719133 -16.24357986
-3.53280807 2.42436671 -16.81346703
2.61768985 3.93938303 -12.69378281
-3.90832353 4.01368237 -14.57667160
-2.05294347 -4.00965214 -9.32258701
-0.02895599 0.28517362 -10.24514198
1.73876214 -0.65486366 -13.51722431
4.05128670 -2.88125348 -16.51727486
2.65442228 -0.89914137 -9.17165565
0.64845657 -5.51345873 -12.24032116
-1.82587194 1.46399927 -13.70061874
-1.98414922 -1.54608345 -16.16597366
-3.99342275 2.96112919 -15.35375786
-0.09487361 -4.07568073 -9.91926670
3.65231442 3.99059916 -10.58339882
1.37860465 -3.56925678 -16.82833672
-3.54340911 -1.74722862 -10.87177277
3.50351882 -0.04257618 -10.34027767
3.94272685 3.56047463 -16.96653938
-2.13460708 -1.96657848 -13.59959221
3.89665461 3.36568594 -9.58387375
-3.95560193 -1.07491040 -9.57429123
3.39772582 -3.50707006 -8.92312527
1.75882518 1.40731537 -14.02209473
-1.73885882 -4.01607800 -11.07417202
-1.42446423 -1.45395386 -15.62895203
3.09996414 3.96207857 -9.72779655
3.94456053 1.58528328 -9.58659840
-0.85099816 -4.02591562 -14.73533058
0.62967789 -4.02487564 -9.86233234
-1.17478287 5.07097054 -12.66300297
3.02989006 -1.33401346 -16.90880394
-2.89873695 -1.53096032 -11.16725922
-2.61491919 0.11213236 -15.19696426
-2.45838118 0.20083299 -15.87484741
0.43347326 3.98291135 -9.86503506
-0.42495003 -5.36984253 -13.12908268
1.51051879 -4.52769899 -13.00735378
-3.30830908 4.20561790 -13.84576035
-4.06756210 -0.70607901 -16.20141602
1.59766185 -4.05355024 -14.04673672
-3.47508812 0.20813364 -15.42662811
-1.93936765 0.01010102 -15.54575539
1.73452866 -4.01345825 -14.47250557
1.87101889 0.52204460 -12.49611950
1.99316418 -3.57978368 -16.84730721
-1.74122989 -0.99034095 -12.16665840
1.30109000 4.16162586 -13.85661125
-3.90681887 3.86326647 -11.48233604
0.81768471 5.07947445 -13.99358749
2.30839181 4.02169085 -13.57512569
-0.25930518 -2.53646469 -16.18807793
2.72792959 -2.14013600 -16.89779854
-2.41813827 -3.98579335 -8.95703697
0.52667940 -2.52500343 -16.16242218
4.02676535 0.48282477 -9.89192009
0.68973410 -4.10076666 -10.92509460
4.01494837 -2.99204373 -15.37568092
2.36562705 -1.01173472 -9.65662384
3.70426989 2.41758180 -14.22018242
2.91730523 -3.77602506 -8.88486385
2.25045657 2.12432480 -12.74879551
-4.01350880 3.45082998 -12.11836433
3.07716799 4.06364727 -12.76404476
-3.98719501 3.72919321 -9.22690392
-2.21336293 -2.16181993 -12.42914581
2.48406267 -4.05734921 -10.16196346
-0.39159292 -2.70914698 -16.36399841
4.08007193 2.25616407 -10.79655743
-0.69969255 2.42490101 -9.78342724
3.54965687 -1.00420630 -16.91892624
-2.24934459 3.94554186 -11.24381256
3.43627262 -2.08443475 -11.39836311
-1.78326476 3.95045400 -11.41827393
2.53015566 -1.05863142 -9.43206692
1.56707919 -3.96219945 -15.34189892
3.93582416 -1.19090796 -16.89797783
-3.93576598 3.22718287 -13.32676506
2.83668137 -0.95653057 -9.08785439
3.54731131 -2.78194690 -8.86829948
3.36125803 -0.43060222 -16.88041496
-3.35291529 -3.92923951 -15.25069046
-4.12202024 -1.74806249 -15.15226364
-2.18747830 1.38184774 -9.78258324
0.95724005 -1.85583806 -15.67912865
-2.40644979 4.02335644 -10.85374069
-3.65392542 -3.89171171 -8.88358498
3.99694538 -2.90291715 -15.83935928
3.94594836 2.68526292 -11.86586571
-3.34793878 -0.52202970 -15.27800846
2.56808257 2.17837381 -13.83633232
-3.40315366 -4.05164433 -16.12829399
-3.91379309 -3.72651434 -15.55240440
0.38036487 -2.84492326 -16.85993767
3.24462628 2.19880700 -16.97364235
-0.49329853 3.97602272 -15.78716755
-0.39009592 5.24804878 -13.34578419
0.73787963 -3.19053364 -8.96692944
-0.21241842 4.01478672 -14.92827606
0.64457697 -4.11465788 -11.27338219
-4.01379633 -0.88320398 -15.79778194
-1.06664062 -4.98098898 -12.00365448
-3.84488893 4.04679108 -11.93335533
4.07845211 -2.82649136 -10.01225662
2.11956120 1.02298224 -9.87017632
0.15706323 2.95369196 -8.94645882
3.93721890 2.81202030 -13.08051300
3.92845607 1.90986001 -10.80018520
-2.70818686 3.89343381 -11.33998013
-1.64619815 0.13995467 -11.68244171
-3.11548376 -1.96757519 -11.58278561
3.27066588 -4.02126837 -13.15042400
0.62591416 -1.50238931 -15.53035450
3.89245248 3.73761845 -10.36497688
0.84515190 -2.73374367 -16.60015488
-3.82672977 4.13356781 -16.65179443
2.04053068 1.97550035 -12.98301601
0.26257330 5.19617891 -13.82680798
-3.09954834 -2.37214661 -13.38338184
-0.15485460 -2.80753827 -16.63997269
-1.21702707 -0.83931679 -10.32377434
-3.59653568 2.42808127 -13.97728825
2.56233144 -4.02258873 -16.44680214
4.06723547 -3.28259802 -14.87189674
-1.86125576 -1.74039829 -13.75035572
-4.00341749 -2.15204763 -16.36966133
-2.72901487 1.61569762 -16.70922279
-0.99904126 -2.41610575 -16.08904266
4.08617353 -3.32100129 -10.03975964
-2.16262054 -0.53539413 -14.88641071
3.92886710 3.70040989 -16.40365410
-1.86397028 1.60427928 -9.73382378
2.26518750 -1.79874098 -11.73246002
-0.54987311 5.31650066 -12.11580753
-1.72135282 0.17945227 -14.36253643
-0.72265047 0.96802992 -10.11727619
1.44600320 2.50924492 -9.28268814
1.74083662 -1.09981620 -12.27895737
-2.32686162 -3.57782221 -8.89826584
-3.74786282 3.95429659 -11.93195629
0.00885885 -5.28506136 -12.64886761
-1.92442489 -0.01192741 -14.67680550
-2.22916794 1.33059704 -16.15093994
-3.88364410 -1.10743833 -9.16269970
2.67035246 3.92857361 -15.21323681
2.69754648 3.93837309 -9.74477482
-3.22933960 -2.25980163 -14.06556606
-2.93319011 -3.94350600 -8.95949268
-1.81848407 -0.21723703 -14.20799637
-3.18692589 -2.74845648 -8.95870209
-3.76711392 -1.97268164 -14.57624912
-4.04747915 3.97096038 -9.58010483
-1.04534602 0.62072730 -10.29870605
3.37250471 -2.49437928 -8.92330647
3.43284154 2.13032794 -11.39194870
-0.06976730 -4.04896355 -15.63239861
4.07593060 3.27653766 -11.43859959
3.78626180 2.06339598 -14.68020344
-1.90161860 -1.49298286 -14.14318085
-1.95061827 -1.02226615 -11.23408508
0.85806996 0.63373244 -10.27465916
3.18891525 -2.09089303 -11.49789524
-3.95897532 3.39962769 -8.89364910
-3.02650547 -1.28600621 -16.83996391
2.22058058 -0.53270102 -10.73572159
-1.66353238 0.68758863 -13.60525131
-3.83626390 -0.92171568 -10.28672981
-1.26248932 4.10748672 -14.75327873
-3.88274860 -2.39470577 -14.40832806
-1.39661133 1.90764439 -9.90040588
-3.25375843 -3.04432058 -8.87739754
-1.68168747 -0.39968133 -10.17467117
1.40334380 3.92051196 -14.55937576
-4.00023031 -2.03237987 -9.36884499
3.26863265 3.98425674 -16.24991226
0.30457735 -2.78439450 -16.46342278
-2.79770494 -1.34576380 -10.88514614
4.06672812 3.77410007 -10.97647190
-3.38146138 -2.56864762 -12.38518906
1.73405731 3.91514611 -8.91717815
3.84301400 -0.26054525 -10.20178032
1.76175237 -2.32837796 -8.95544338
-3.90893054 2.80565262 -9.91094971
-1.07512641 3.88979340 -14.98608017
-0.01124227 -0.66818911 -15.64753532
3.98393583 -0.73327851 -9.62423515
1.93444049 3.94642401 -16.59719086
3.24422693 -3.97538495 -14.45737362
3.11621881 -1.58364534 -10.88646412
3.38095379 2.50095630 -13.18776512
2.41475844 2.87113786 -16.73656845
1.68341529 -4.25534248 -12.66995811
-2.39962983 -2.84575939 -8.81785774
-2.66879296 -4.02454519 -11.07471466
2.94872189 -3.83983898 -12.86586952
1.63183665 3.49032259 -16.98676491
0.12558009 -2.39388895 -15.97944164
1.77738369 2.25066233 -9.31399727
-0.74121428 3.96957970 -15.22255516
-3.19122148 -2.25460601 -11.73930359
-2.06229138 -1.94363451 -16.52375031
-1.59164667 0.81620502 -15.63229752
1.66753781 -0.70114350 -13.12925911
-4.04329062 -3.83119011 -10.56680775
2.30734134 2.18997359 -12.99870300
-1.50252199 3.96412826 -10.54953289
0.85002786 4.34911728 -14.06487751
-3.08429384 -0.31451395 -16.90913200
1.89617121 1.75062358 -9.55847549
0.58045495 -5.35556793 -13.02942657
-2.43291616 3.86591268 -15.09122562
3.03357124 4.10547256 -14.63434887
-3.40909100 -3.95376992 -12.54160976
3.75657248 4.11808491 -15.83713913
2.20204973 1.32144392 -14.58163548
-3.97356534 -2.92755151 -16.05427170
-1.81166124 4.06361818 -14.15073109
3.50826144 3.99604344 -16.70836067
-0.90535414 4.17006350 -14.32310486
-1.85886300 0.12772447 -15.49312782
3.93783164 -1.79491055 -8.93602943
2.09942245 -4.13906431 -15.47311211
-2.44084835 4.13035154 -15.58593369
4.05333138 2.51577067 -15.73755646
-1.70502257 0.69034058 -12.55122471
2.84205556 -3.92169380 -12.70270157
-0.42854470 3.94010997 -15.56185722
-4.01331902 3.97673750 -15.96213531
1.19679117 3.97021842 -16.01079559
-1.48945856 4.18609095 -10.92989349
2.89446998 -2.56975722 -8.79903793
-1.35263693 2.13647389 -9.61183739
1.96156991 4.03456259 -14.18921280
3.22025871 3.94769406 -9.63285732
-4.04225254 2.57858682 -14.20693016
2.79214907 -1.45560837 -10.80314636
-1.38729513 3.18552017 -8.90279961
1.41307867 4.07457924 -14.61244011
0.67775315 2.89012718 -9.24224091
-2.53295636 -4.06710482 -10.13326168
-2.54493809 2.05560684 -16.91467476
3.23350739 -0.10026944 -10.43362427
0.87238085 -3.99452424 -16.46664047
1.73819876 0.22206300 -15.62284851
-1.86983263 -0.40592039 -14.69739056
2.32309461 -2.94589615 -16.87413216
-2.45908642 -4.06552935 -14.84965038
-2.72618151 -2.12785602 -11.85901833
4.07567358 -2.31033564 -9.98835945
-3.81761503 1.61002398 -8.88633347
-4.09981966 3.49008369 -16.10543823
1.44821239 -1.75797069 -15.82017899
2.67050338 -3.94313741 -15.11759567
-2.47003603 3.95333242 -12.56821823
-0.91922671 2.61782908 -16.43188858
-1.24504089 -2.71032929 -16.76502609
-1.04555297 -0.92205679 -15.47936630
-2.77947664 -0.38799274 -16.62160110
-1.45197546 -4.88090611 -12.35313225
-2.98624420 3.99162340 -12.07489872
0.76055932 0.10055318 -10.32896423
3.58640957 3.91356778 -11.16625595
-2.61380553 -4.15010452 -11.39349747
1.10817897 -5.04630613 -12.64500809
-2.10858512 1.76832652 -16.58622169
0.40908524 -4.05943012 -8.82194328
-2.88096547 -3.98166704 -12.67574024
0.39241323 -5.15890884 -11.72156906
3.02101827 1.95114577 -14.22809029
0.88520831 -1.17611003 -15.58858585
3.49513721 2.89066052 -8.84584427
-4.04626179 3.16319680 -12.38714600
-0.88928723 -2.62480545 -16.40639877
-2.49275112 0.06443772 -15.94141006
2.36112404 3.79014874 -16.87062454
-2.16281629 -0.73339218 -14.86097717
-2.65971899 1.20591044 -16.68183517
-1.35384727 4.12029076 -13.84277916
-4.00332737 3.17930603 -11.45732689
-2.16186237 0.10517497 -15.09526348
3.45715356 -3.99281240 -12.81111336
-2.43112493 -0.39433563 -16.03414154
1.63454628 1.10123980 -10.26282501
-3.62471080 4.03218365 -15.29324818
-3.83988476 -1.21321535 -8.95052338
-2.89982867 -3.92400908 -15.71391296
-3.57515192 -2.29961729 -16.80405998
-2.37109661 -1.09288085 -11.00038719
-2.96289515 2.22030020 -13.68988705
-1.82605100 -0.26298335 -14.32212353
-0.11861902 3.99511909 -15.95953465
1.86883128 -1.61816251 -16.04963684
2.54512262 4.09717226 -9.38766384
2.14464402 -1.45323563 -16.27409744
2.80189466 3.97570014 -13.58398819
-0.51185924 -3.93270826 -9.51424408
1.43701482 -2.10090876 -9.66027832
-1.76723492 -1.40449619 -12.33226013
4.06524658 2.40637779 -9.33114815
-2.84774113 3.02745509 -8.88033104
3.14234781 -2.57689714 -16.89833450
4.03732300 3.08048272 -13.07731247
-3.86841488 1.96058929 -14.87784386
4.02221966 -0.54131603 -9.56967545
-1.07945848 5.05409861 -12.92379856
3.55949759 -2.48303747 -11.97601604
-1.68481481 -2.00853539 -16.31814384
1.91996896 -1.02953577 -11.09166336
-0.44446364 -3.82846975 -16.05907822
2.63954949 4.02487278 -11.36718559
2.10024261 3.87734699 -12.59814262
-3.49458122 4.06007910 -14.87464237
3.93976188 2.37411475 -11.45228481
4.05202913 2.41783690 -9.12455559
3.82866907 2.43802714 -8.97737122
1.05044341 -1.86021054 -15.53620434
1.75243556 4.04960823 -9.30210304
-2.23793125 4.09292841 -14.90313625
-1.50206947 4.02373266 -15.17267227
0.79882276 -3.66035295 -8.86507797
3.03371859 -4.07765293 -10.02000427
3.37179303 -1.59156621 -17.07760429
-2.82518578 3.98586345 -10.76916885
-3.56688690 -3.15207958 -16.96237564
-0.53132147 0.58292931 -15.44940090
3.48540998 0.91111434 -15.23579216
1.69687295 0.73886359 -15.65076637
3.89397645 0.19177902 -16.98631859
2.11419654 -2.05966973 -9.22068977
-3.13897395 -3.95398068 -10.04426289
-0.94608825 5.18180132 -13.24338913
1.08452857 -5.13179827 -13.34214497
0.91856682 2.62424111 -9.40792274
1.59275520 -1.10581326 -15.46326733
-3.38779187 0.58266306 -17.01263618
1.61500967 -2.21379423 -16.42311287
2.19704795 -1.82518637 -9.11646938
1.88259685 3.99643517 -14.87385368
-1.74512947 -0.88991892 -13.88578415
-1.10756755 2.32494664 -16.05511665
0.96426725 -3.98298717 -10.52368832
3.98848867 1.28930640 -10.03665638
-2.00815511 -0.25905508 -15.56865883
2.88155937 2.23566794 -13.53964233
-1.93771148 -0.72387844 -15.69164944
1.55704081 3.93243623 -15.08250237
0.13085324 4.02360296 -14.38816547
-3.91267872 3.04908061 -16.61682320
-3.27596188 3.96607542 -16.88476562
3.49019146 0.30626297 -16.81977654
-2.03298688 1.18925583 -14.51269817
-1.86065090 1.49099886 -9.80768394
-0.71058661 2.31862736 -9.83757019
3.84447336 3.91544151 -15.57400608
1.22512901 -3.88111639 -10.55444908
2.24036074 -0.91910177 -9.81803989
-4.04119778 -2.45407605 -9.96464348
2.73641849 1.51619077 -14.68169689
3.06802297 -3.98498058 -13.23975182
-1.14271867 -1.10958660 -15.54445457
0.46164218 5.27396965 -12.98328495
2.52036905 0.96498621 -9.33646202
-1.80486333 0.65935928 -15.52952290
1.15811360 -3.34833050 -16.99744415
-2.72747254 0.15425791 -16.34492493
-2.74380922 2.10284233 -13.92972755
0.85317582 4.04936409 -14.44088364
-0.86718565 4.78127241 -11.81016827
-0.69814706 2.22443223 -9.73425198
-0.28428233 4.06297064 -15.09112740
2.26851416 -1.32784104 -9.46130753
-1.04238355 -2.01694298 -15.99047852
3.80497241 4.03329372 -12.62014198
-2.84691262 -2.11977386 -16.94900894
3.11382103 -3.93383956 -11.98645687
-1.68508673 3.97445631 -15.27697086
-3.02213860 2.24483275 -13.64049816
2.51453733 -0.60196626 -9.41177559
-2.34190893 -2.16122818 -12.19326878
-2.69957304 -3.95377469 -11.03864861
4.11797476 -1.98010051 -16.09567833
-3.21478343 3.94088292 -14.29628372
2.28348589 3.91055584 -15.18444824
-3.38627529 -4.09166908 -9.53028965
-3.67005825 3.99687147 -9.77808952
3.85023451 3.70261168 -16.79911232
-2.41328073 -4.01380730 -10.61711502
-2.76825953 3.99426818 -10.04477501
-3.51221514 3.60824513 -8.93002319
2.41651058 -1.89364898 -16.95623016
-1.51186323 4.47948980 -12.82796001
-1.42126441 -4.31504345 -12.56593323
-3.98925900 1.92194676 -16.53485489
2.80885029 1.19620538 -9.08726883
2.29792428 -4.00066566 -14.80791092
-4.00742579 -0.10329098 -9.30013466
2.67856216 3.49080157 -16.87523651
-3.23877573 -2.50193071 -12.28861809
0.18808660 1.78238189 -10.29364777
-3.38027859 -0.53330684 -10.43655968
4.01843643 -3.53743768 -11.76182365
0.96457756 0.97975844 -10.32275581
2.38413572 2.21252513 -12.96212387
-3.70773864 -0.03361547 -15.50240326
-1.85653508 -0.20126903 -12.73875618
3.81401277 2.73392153 -13.10868835
-0.22275448 -3.07499814 -16.94818306
-3.16036797 4.03793907 -15.56815529
4.03493166 -3.90297222 -14.76650143
-2.90754342 3.93602347 -8.97858620
1.66641450 -0.33176282 -13.29932785
4.02117443 -2.34490490 -15.96980476
1.95664847 4.03167534 -16.81712723
2.17714834 1.51204681 -9.68978691
2.96340704 4.08723593 -10.02842712
-2.76694989 -0.03257836 -16.53742981
0.81716132 3.20783043 -16.79274559
-3.66255307 -2.17664838 -11.60809326
-2.52860022 3.99680567 -15.21133423
-3.35670757 -0.82927954 -15.33736610
1.05026329 2.43201566 -9.48762321
3.50077057 -0.21422713 -16.95639038
0.96890944 -0.08852971 -10.21667290
-0.50778770 5.14828348 -13.93593979
-2.08960438 4.10772896 -9.63445377
-2.01163197 -4.07320547 -13.30089664
-3.94045568 -3.30496979 -14.00366497
-1.80961275 -0.45449758 -14.14805984
-1.68087089 4.14414167 -11.03533173
3.64900374 2.59948778 -12.77999783
2.69538474 0.49090654 -9.35901070
-1.11665356 5.12520742 -13.30246162
-2.77029085 0.93181449 -16.63960075
3.87459564 0.73129296 -10.04507828
1.81252253 0.00396178 -14.24757290
-3.54488730 -3.90109348 -9.10451126
2.66829157 1.75912344 -14.51112175
-0.58764648 -2.84022975 -16.70543480
-3.76899123 -2.80042768 -12.79019833
-4.03220320 -1.55777252 -16.23535919
0.44608992 -5.29724455 -13.32684612
2.40882277 -3.99552536 -15.79994774
-0.99870247 -4.14088345 -11.46334457
-1.80666244 -2.54386854 -16.93731880
4.09819031 -3.41552043 -16.26788139
2.56463003 -3.31274247 -16.82387543
-4.03918552 0.08773082 -9.03972530
-0.57018334 -2.23565483 -15.78017616
2.97159028 1.96319795 -14.20440483
-4.01767731 -3.43763685 -10.84515381
-0.20446639 -3.91053510 -16.13157272
4.04682827 0.17101127 -9.10772038
2.96036243 2.42706776 -12.92105484
2.36949420 1.87110388 -13.96131325
3.85949016 -2.75769353 -11.78164959
-3.98852158 3.11604047 -11.79837608
3.45271492 -3.97374988 -12.88556194
-2.93515587 4.01522684 -13.15981579
-3.93640256 2.33620429 -15.26850700
-3.98724437 -1.19987202 -15.40828133
0.54751480 -3.97006631 -15.06618690
-1.98444152 -1.82558787 -13.49917126
-0.17790084 -4.02693987 -10.91765022
3.83764219 2.11617994 -11.09961128
2.00709152 -1.66619778 -11.73872566
-4.09418964 -2.28696537 -16.50360298
-2.55849576 -1.30063009 -14.68917465
0.30064863 -4.76468515 -11.48993969
0.88994765 -4.93326235 -11.85277557
-1.78781044 -0.17617404 -14.30360222
-1.93257558 -1.81492043 -13.29121304
-4.03537273 0.47742400 -9.69493008
-2.84935069 4.04314280 -9.55443192
3.61121511 -3.95643210 -14.20535660
-1.97808373 -3.48759413 -16.84366608
-3.43366766 -2.09486675 -11.53425026
-2.95831347 0.28176385 -16.85294914
1.23539793 -4.06704855 -11.64824486
0.04550686 2.75987339 -9.53198433
2.53291845 -3.92566514 -13.04293346
-3.01741028 4.00955105 -10.32646942
1.10773659 1.67328775 -10.18597603
3.77738285 1.98042941 -14.83676243
-2.33238053 -0.76567686 -14.91658211
1.67383277 -3.94584990 -10.51813126
-3.08750105 -1.89047432 -11.51395035
-2.16098762 3.95975900 -12.88463211
0.62250000 4.01310539 -16.06059837
-1.87787175 -0.33980745 -14.68728828
-1.88818741 -0.29052621 -13.94431496
3.97636890 3.13063955 -12.41803837
-1.70701122 0.81358868 -13.25093842
-0.84467924 3.36889338 -16.87665749
-3.30762172 0.33729869 -15.45144844
-3.15729642 -0.57543314 -16.84294891
-1.36574936 -4.07352638 -10.16896057
-3.32247639 -2.47578478 -13.44159985
-4.00708961 2.75540233 -9.94636250
-0.63259745 3.73403811 -8.96199226
-1.00978386 2.60559869 -9.33501244
-3.94463563 -3.51514912 -9.28408718
3.02569962 1.26774573 -14.90289974
-3.75349307 2.79815722 -16.92814064
-0.62207001 -0.81884474 -15.47229576
-0.84790474 3.96732044 -9.56005096
2.15350080 4.15521383 -10.97740746
-1.39808857 2.48249388 -9.07053947
3.98213744 -3.45083857 -11.27570629
2.88783669 3.97270250 -15.09204483
-1.93551111 -4.00909376 -10.02726936
-3.98239517 -1.38747883 -15.93994999
1.04837179 -4.92182064 -13.65183449
2.34561658 -3.91846132 -10.11454582
3.97803783 -3.55833578 -9.26769257
2.49651361 1.29387569 -14.90310001
3.90446615 2.30639458 -14.97534466
-2.89663601 -1.16835034 -16.85531235
-3.10253620 1.81549203 -14.66979313
1.26034725 -4.85925388 -13.26554775
-1.76139057 -1.06001270 -11.55499363
0.90473783 2.66607738 -9.17859268
2.24625206 4.00131083 -14.97271156
-1.99379158 0.23513986 -14.85686779
-4.10299730 3.37841105 -14.47363758
3.87710595 2.32486320 -16.27996635
3.64221835 4.00518274 -13.48917294
2.13816094 -2.55810881 -16.93806076
-4.06027794 -0.67425054 -15.59866810
-2.07563162 2.29572415 -16.78087044
1.97275460 -3.85608077 -14.23550034
-3.67450476 1.09357142 -8.83115768
1.80570686 -0.16404653 -12.51747704
4.07862806 3.52565670 -14.54606628
-2.36305666 4.00315237 -16.66580200
3.63332987 -3.98242831 -11.55851555
-1.35353827 -1.55468547 -15.54677963
1.28342366 1.22621906 -15.64869308
3.97532225 3.15936017 -9.02543163
-1.84768820 3.81738544 -13.35337639
3.97819638 -0.01284457 -9.76398182
-1.15494180 4.93620348 -12.27903748
-2.64014459 3.99078965 -14.80070591
-3.34012437 -1.88839746 -11.03316784
4.02020931 -2.81738496 -15.18573570
-0.78999740 2.85320830 -9.23351479
3.93180466 -0.86943489 -16.19654655
3.95781684 3.92652297 -9.41440964
3.95184302 -3.43445039 -14.37172794
1.33256972 -4.96508503 -12.46863365
1.16644883 3.90551949 -14.81096935
3.52943254 -1.15833986 -10.52256203
2.71584010 0.43018967 -9.43629456
-1.40009379 -0.13064572 -15.38409805
0.26415169 3.95971251 -16.10065842
0.55100155 -2.79782295 -16.67121124
-1.18579948 -0.54272544 -10.26391125
-4.01734161 3.89214015 -9.94656944
3.83612800 3.28838515 -16.88898849
1.86204004 3.89833951 -16.12923241
-3.98968601 2.95105696 -11.09709930
-1.29385972 3.92999721 -9.14052010
1.53453064 -3.93666458 -9.35742760
2.18553495 -1.59022355 -11.43930626
2.35680032 1.88038182 -13.63488197
2.19488764 -3.97175670 -14.17761326
3.53072619 3.97861147 -16.10915756
4.08282232 -1.72444749 -16.36731911
4.02732229 -3.82094073 -9.82242680
-4.01127911 3.29375100 -11.32310390
3.37435722 2.51921463 -13.23084450
2.05499887 1.86463547 -13.21395969
-2.33651114 4.05251598 -16.65819931
-4.04600096 -3.02051687 -9.51155376
0.77020723 4.01385641 -16.76025009
-0.06191331 -1.14493942 -15.55887794
2.75241876 -3.66431403 -8.90859604
-1.54980588 2.41229057 -16.63195229
0.05882110 -1.22416425 -10.34332371
3.95366120 -3.70042419 -10.82302666
1.35121512 -2.20515180 -16.11310577
-3.44794631 3.15262842 -16.97290421
-3.48431420 3.54904652 -16.78297997
-2.70891953 0.04802395 -15.21973991
0.04222487 2.03758717 -10.20741081
-0.88691729 -3.91585016 -15.55572128
2.74512696 -2.76642942 -16.85576439
4.03307581 -1.86301446 -15.93338776
1.87790155 -1.16558254 -11.17431068
0.75503469 -1.22081399 -15.51357460
0.61540663 -1.09257162 -10.21883583
2.85479546 0.14777549 -9.18649292
1.51729977 -4.02003241 -10.19851589
-2.06124520 -1.34368324 -15.84852123
-1.82501626 1.39693785 -9.84283447
-2.92616796 -2.31272054 -13.15733910
-1.47990465 0.91128570 -10.23844147
1.89470708 2.02639103 -12.52566719
-0.88937902 -3.14991331 -17.00520134
1.66847849 -3.98458028 -16.11710930
3.32013845 2.41076255 -11.76470566
-2.00084829 -1.91935897 -16.36644554
-2.59948158 0.89014906 -16.44918060
-0.89039779 -0.04611554 -10.21455669
-2.73591304 3.93363261 -10.51826096
3.21243978 -3.95828581 -13.24520588
-3.09239221 -3.98148441 -15.83317280
1.32194149 2.37796664 -9.30795288
-2.51748109 1.48984683 -14.62658215
2.51050591 3.55789232 -8.76463795
-0.93444258 5.17066240 -13.78273678
-0.37478077 2.17693400 -10.15231800
-2.33102369 0.94085228 -14.91104412
2.84965110 1.69421065 -14.71380138
4.07817745 3.22199178 -11.00467491
3.27622533 3.94458413 -15.94825459
-0.82446480 3.98289490 -9.39252472
1.87227094 -1.15631270 -15.84333992
-3.94937134 2.94288135 -15.41424084
0.22161742 -2.71193075 -16.35826874
0.72935075 0.80171078 -15.49887180
-2.41541457 4.05598068 -11.63137150
1.42676687 -1.77808928 -9.68457508
-3.41533232 3.89132547 -15.65608406
-3.95289063 -3.68634534 -12.85968685
-4.01233816 1.26338494 -9.75958252
-3.76135683 3.16448903 -16.02045631
-3.59276676 1.38114321 -15.17459583
3.74386048 3.97755623 -14.58998108
-1.94071770 0.71365571 -14.77843094
0.09274326 -3.99038029 -11.05823421
3.83993530 -1.01696694 -10.19649410
2.49229145 2.33031464 -13.59686089
-0.80463558 -4.19994879 -11.50383759
1.06636500 -0.28352422 -15.61608028
1.08002830 0.42871451 -10.15754890
-4.01777983 0.27496073 -9.14126968
-3.38795328 -3.40176439 -8.92901611
3.61115456 1.82758367 -14.85040760
3.28041291 1.88772368 -14.62695885
2.46162391 0.08863449 -9.77115059
1.74236178 -3.94350052 -8.88489723
-2.05113411 3.88801289 -16.84717178
2.62365794 4.05554152 -14.66719246
-0.67737442 -3.98011899 -15.98162079
-0.34268397 -4.35402060 -11.41142368
4.02176762 3.51201510 -15.95731258
0.73105216 -4.47183609 -14.16739273
4.12953949 2.97055888 -13.88986492
-3.74904060 -2.61467671 -13.81791687
-4.03613567 -2.71274471 -12.20465565
2.57276344 2.08850551 -13.90223217
-2.39826274 -3.94786239 -13.61742687
3.27907825 1.57845664 -9.03623772
-2.27149200 0.42540997 -15.00908375
-3.98510861 4.02257061 -10.77885056
3.91638780 1.58113849 -15.11171341
1.62002170 0.52652633 -13.30300808
-3.97274280 -0.93181378 -16.15817833
-3.10749364 -0.80594891 -15.25221157
-3.22770119 -4.11901236 -11.52493763
-2.25132942 0.99027020 -15.83939075
-3.43964100 1.58690464 -14.95974922
3.86346006 2.71686101 -13.62899780
-4.04162502 -3.98571444 -11.58296394
3.21460676 -3.91889024 -15.28862667
3.71324492 2.49430513 -13.69516468
-2.53290558 -1.59325898 -16.81661415
-2.83394933 -0.37760967 -15.13463879
4.07738686 -2.59984684 -10.62735748
0.96414590 4.02779007 -11.06204987
1.60142469 2.07901001 -9.58448601
1.98152113 -2.25120592 -16.75160599
1.56825972 1.67384017 -9.81613255
-3.82548451 3.52336502 -12.33187294
1.82229435 -2.49490547 -16.65110779
3.81523752 2.77205348 -12.56152916
-2.49095201 3.99242878 -10.24427128
-2.39123297 3.21534228 -16.95909309
0.52354610 -0.98299015 -15.48233795
-1.33237410 2.02603865 -15.83258915
-2.97755408 -1.65182304 -8.94912910
-1.93046737 -1.23271978 -14.47870541
3.88701391 -3.97250724 -9.59177208
1.49016130 3.10356760 -16.92359924
3.78576660 -0.65441948 -9.89191818
-1.78145587 -0.53540367 -14.22434235
-3.27936935 -2.85638309 -16.94738770
2.24144578 -3.89460278 -14.92873764
-4.06006145 -3.12923360 -14.59738350
-1.33120286 0.15420903 -15.62858105
-3.41723394 -2.49021530 -12.85042953
-3.55628872 3.94071507 -10.61096382
-4.02342033 3.62244534 -9.40225029
-2.84562755 0.51529390 -15.20527840
-1.24984753 3.89896584 -9.27549934
0.48986721 -0.23160660 -15.49060440
-3.98689032 -3.50107360 -13.28832626
-4.06268454 -3.54397178 -10.01912022
-1.43737197 3.46116042 -16.87334824
-2.22763395 -2.19240737 -13.12055111
-2.15212774 1.00261617 -9.61795044
-1.50295949 4.25943661 -13.29142666
-2.17762113 -3.66006780 -16.83219147
-1.49108231 -3.95781350 -15.82115459
-1.92082751 1.46136105 -16.07889748
0.52572632 3.95436716 -10.86726570
-2.22830725 1.03645909 -14.72317982
-4.07726860 0.78598356 -9.78737926
2.00433373 -1.67601967 -9.70203400
3.13290477 -0.69581246 -10.57615280
-1.10669565 4.62061119 -11.91753864
3.05577612 -4.01428080 -16.43337250
3.97942042 -2.83444071 -15.70065498
2.52883506 1.84629107 -11.49835777
0.90584749 3.98869658 -15.48266602
-3.83785009 0.88971633 -15.36053658
2.02402925 -0.97463727 -10.14711952
-4.00782633 -1.11073303 -9.27959061
-3.27800822 0.68152463 -15.34993744
-2.59113121 -0.71065015 -16.26248550
2.66642880 -4.07091808 -12.32928276
-0.39605060 2.72444677 -9.36463356
-0.31773019 -3.99469757 -10.10804558
-2.77348876 -0.17256123 -16.54507446
4.01072884 -3.75359273 -14.58748436
-0.79040188 5.30101442 -13.49501514
-3.89638758 -2.66154957 -11.89345169
-1.71492946 -0.13169530 -11.62586498
3.14966226 4.03183317 -12.26691914
-3.97640276 3.07807851 -10.81024361
1.73481476 -0.69076991 -14.20768070
1.82476377 -0.23409437 -12.92641354
1.99050772 -0.41000223 -10.77135086
3.87006664 3.56988835 -9.24122429
-3.57765102 -2.70699334 -13.16602898
-2.54874039 3.98417163 -14.39997005
1.36665761 3.93877387 -10.35412216
-1.58365035 -2.43071890 -16.56031036
-2.47242498 -1.99549329 -12.05764294
-0.44430956 5.33998537 -13.93977356
-4.05788946 -2.78021169 -9.79896259
-2.12997222 3.90680909 -9.92836761
-0.50218475 -2.79259706 -16.58517456
2.23682332 3.94495869 -16.59962273
3.96101832 2.12678838 -15.01246643
-2.55320787 3.88865280 -17.00860023
-2.56944966 -2.51808262 -16.81274605
0.73547816 -0.60266036 -15.53018188
3.59293461 0.01672919 -10.23518658
-1.78499365 -1.05956781 -15.68532658
-2.69123363 0.66002685 -16.37525368
-3.87004948 -2.10009933 -14.70898056
3.28356147 0.65464061 -10.51734543
-1.65294397 0.69210237 -12.83813858
-1.52410817 1.58266830 -10.07334328
-3.84067845 0.91122800 -8.81798935
-0.47603247 3.51021576 -16.84366989
1.67250323 -1.33759558 -12.47773647
0.14212358 -0.08974732 -15.58249950
-0.25629485 -2.71345878 -16.34382629
-0.07091219 1.11453056 -10.32474136
-3.95070720 1.08122218 -16.45526123
-2.87977242 -2.47504711 -8.86359692
2.61111450 3.87607956 -12.55922318
-3.67005348 3.89777970 -14.43713188
-0.12400966 0.27279419 -10.33744907
3.93693280 -2.99952221 -16.60740852
-2.00029707 -1.54131508 -16.34666061
-3.78188729 3.17636776 -15.30523109
-0.22886045 -3.94783592 -9.81886673
-3.72747111 -1.72963870 -10.88376045
3.43880367 -0.01390848 -10.39551830
3.87839651 3.42954683 -16.94887543
-1.98897767 -1.90566957 -13.53692722
3.37410212 -3.51213646 -8.96792793
-1.87613356 -3.99650335 -11.11766815
-2.36883616 0.29090023 -15.93554020
-0.45941234 -5.16991138 -13.06941891
1.53795934 -4.42030907 -12.97624016
-4.01923418 -0.68334681 -16.14312935
-2.00342870 0.21994522 -15.54356956
1.65572178 0.41550604 -12.42428589
2.06950831 -3.63401842 -16.78854179
-1.73360872 -0.99878979 -12.34563541
2.77917385 -2.00932050 -16.74592972
4.04036999 0.39628273 -9.73528767
2.29671264 -1.17627335 -9.71967316
3.05981994 -3.93169260 -8.92383003
3.97351670 2.30561066 -10.84552670
2.55882645 -0.99107254 -9.32989216
3.84764290 -1.12059867 -16.79909515
-4.10310888 3.31573105 -13.33575726
2.87474632 -0.97991478 -8.99419975
3.65435195 -2.73082852 -8.92540073
-3.84683394 -1.79811120 -15.13802528
-1.89401805 1.30016196 -9.54715347
3.89462566 2.58780026 -11.89516735
0.37474576 -2.99611354 -16.66674423
-0.14709902 4.08260059 -14.87590122
0.67718160 -4.02039242 -11.36114693
-3.94125724 -0.93127108 -15.78571987
-3.66073847 3.94322777 -12.07747936
2.14049101 1.13970542 -9.87936687
3.81417251 2.92100143 -13.01679516
-2.66107106 3.99262404 -11.38164330
4.08348227 3.63994050 -10.46427059
1.87167776 1.85497332 -12.86276627
-3.21791029 -2.42690563 -13.55402756
-3.61610603 2.38320160 -14.13643074
3.98714614 -3.15526724 -14.90299797
-4.05890799 -2.21380162 -16.24898148
-2.65856743 1.71677375 -16.74398041
4.01331186 -3.18065143 -10.00466728
-0.35003054 5.13919878 -11.91973591
-0.66446412 0.84582907 -10.20557213
1.43986154 2.36787701 -9.35791779
1.72010648 -1.25924671 -12.29729176
-1.99776733 0.10819747 -14.84153271
-2.31767964 1.27127862 -16.26386642
2.78016138 4.10430622 -15.29240799
2.63775635 3.96913815 -9.87055588
-3.23243141 -2.18775511 -14.01300812
-3.03514147 -4.04853630 -8.83436108
-3.63263345 -2.04117775 -14.59934235
3.26929188 -2.07267690 -11.52119827
-3.78247190 -2.47407961 -14.45827007
-1.43120015 1.93828690 -9.98947620
-2.93652773 -1.24998522 -10.88486195
4.01385975 3.74005389 -10.73005009
-3.47672772 -2.57561421 -12.40184116
3.89516735 -0.28537145 -10.11491108
0.03861792 -0.60613972 -15.54168797
3.37245870 -3.81660795 -14.37427998
3.32657909 -1.60398126 -10.96307278
3.29565477 2.57943559 -13.21254063
1.60825443 -4.36690950 -12.68103409
-2.66298008 -4.05522633 -10.77312660
2.79644370 -4.00691700 -12.91904449
1.59750462 3.38558865 -16.84426689
1.68455136 2.00190258 -9.43774605
-0.61193031 4.03227425 -15.23818874
1.67778540 -0.77431905 -13.18480206
-3.93544197 -3.95664263 -10.50223923
-1.47263145 4.13265705 -10.42531681
-2.96576262 -0.14196402 -16.94756317
1.87137389 1.68826616 -9.57665348
0.65330642 -5.39217281 -13.10620308
3.03870535 4.02936935 -14.78240013
2.05550480 1.40988874 -14.61357212
-2.00935316 4.02832270 -14.29931259
3.56394744 3.98732662 -16.78351974
-0.94954634 4.06469154 -14.52636814
-1.79199111 0.18681577 -15.53638172
1.86172426 -3.98492503 -15.57698822
3.15690613 -3.97611070 -12.61004829
-0.42134705 4.00401068 -15.45625877
-3.99989080 4.18490410 -16.03284264
-1.17994058 2.23785257 -9.71261311
2.82864451 -1.29138565 -10.99497128
0.45313907 2.73225808 -9.19712734
-2.65068221 2.25328827 -16.92203712
2.42082024 -2.94607425 -16.92745590
1.51106429 -1.60946715 -15.73274422
2.94762421 -3.88619614 -14.92192936
-2.57057667 3.98469830 -12.59578419
-0.70879185 2.42595267 -16.29647827
-0.87154996 -2.84573817 -16.64819717
-1.09606779 -0.82633948 -15.58123970
-2.82849216 -0.56708032 -16.57026291
0.75465602 0.18189943 -10.20690918
0.41886610 -4.02933884 -9.00027466
-2.70629120 1.23505640 -16.59135437
-1.23135149 4.21050739 -13.87119865
-2.26380014 0.19301672 -15.01498032
-2.86922193 -4.09515476 -15.74082947
-3.47653937 -2.16837692 -16.74461937
-2.24499249 -1.19310737 -11.08803177
2.62250185 4.00407839 -9.26253414
2.17588568 -1.27526641 -16.21296692
1.53825676 -1.93269742 -9.77361107
-2.81441188 3.05972576 -8.88194275
3.91783047 2.90268612 -13.14109993
-3.73127866 1.86142313 -14.76469517
-1.15114093 5.14775372 -12.82331848
3.74086189 -2.47550654 -12.08298588
1.99163949 -0.94147646 -11.21681118
-0.43906787 -3.89402699 -15.92541504
2.10936737 3.94459033 -12.42632771
1.81403220 4.00033903 -9.44495869
0.87778199 -3.72780538 -8.95813942
3.47800612 -1.63303876 -16.78154755
-2.85903978 3.87917280 -10.75893784
-0.28554398 0.67700052 -15.52224731
3.81520939 0.18498446 -16.84165192
-0.94400823 5.31130695 -13.16904640
0.81981963 2.58033013 -9.58726788
-3.31679130 0.67887348 -16.85993195
-1.71558380 -0.87605256 -13.96163654
0.80804074 -4.07769156 -10.59164524
-2.15341473 -0.02364989 -15.63922024
3.10290623 2.32324290 -13.42478561
0.10980061 4.11865520 -14.45125294
-3.99703789 3.05099726 -16.57755089
-3.29591966 3.94976640 -16.85715866
3.39348435 0.30892643 -16.79002571
-2.05935073 1.21694446 -14.56858158
-1.84173334 1.57595694 -9.71514416
-0.66068363 2.29237580 -9.87275600
1.30737245 -4.10161972 -10.57990074
2.16685700 -0.98719758 -9.73703766
-4.09678507 -2.68681479 -9.97796631
2.65631986 1.49029279 -14.55066395
-1.14505124 -1.17932451 -15.55192852
2.42818260 1.00527513 -9.42482567
0.95443356 -3.33453560 -16.91391373
-2.71587515 0.18161145 -16.33176231
1.07353568 4.00129032 -14.59052181
-1.08595169 4.60187721 -11.86743736
-0.50524819 2.41398048 -9.63543892
3.65667939 4.12644577 -12.72099876
-2.84063578 -2.18034935 -16.87735939
-1.78650892 4.08273220 -15.12622261
-3.03402448 2.29585457 -13.78898430
-2.53276920 -2.11843061 -11.94076443
4.05125666 -1.87310159 -16.12317467
-3.68022799 3.86994338 -10.13673782
-3.54136276 3.37230635 -8.81023216
-1.55438113 -4.48959351 -12.58188534
2.70020556 1.11342239 -9.24533558
2.53889608 -4.06398249 -14.50192070
3.95913839 -3.66755629 -11.86038589
-1.80348134 -0.13953625 -12.92638302
-3.35134578 3.94433284 -15.63353348
-2.98097944 3.99914551 -9.18732262
3.14606214 3.97825527 -10.00897503
-3.59848595 -2.40647721 -11.54498863
-3.30195808 -0.76093674 -15.37388325
-0.44491810 5.32020473 -13.86421490
-1.67888367 3.94107628 -10.96589565
-1.27639008 5.28146362 -13.11642361
2.76713109 1.76071095 -14.34753895
-0.62954140 -2.95008516 -16.70697212
0.37777051 -5.34176111 -13.11562634
2.21791482 -3.97274375 -15.69960022
-1.21183693 -3.96130967 -11.51782513
-1.87808549 -2.63286042 -16.90154648
2.57128167 -3.26156712 -16.91013336
-3.93275285 -0.08576517 -8.98508835
-4.02012300 -3.37024236 -10.94512749
2.32107592 1.94609928 -14.18414688
-3.96778440 3.22033644 -11.68212128
-2.04760242 -1.81192708 -13.46015358
-3.98527932 -2.44363713 -16.59114265
-2.64665794 -1.40548098 -14.76625538
-1.80657363 -0.02012805 -14.10079670
-1.97255576 -3.51528811 -16.92351151
-3.41823387 -2.12860703 -11.63483620
-2.83311343 0.40697232 -16.74166298
1.29882824 -3.90297127 -11.58553982
0.12564698 2.75048614 -9.48744297
1.02514553 1.59709203 -10.18621540
-2.24628592 -0.83239704 -14.87996387
1.76481104 -4.06456423 -10.37863922
-2.95879030 -2.08520699 -11.40988255
4.00396967 3.21296668 -12.42899990
-1.34630203 -3.95967126 -10.39281845
-3.17077088 -2.51466918 -13.36739922
-1.08460188 2.47226501 -9.16834450
-3.92590165 -3.28049183 -9.20704460
2.98555946 1.30178750 -14.93725586
-0.47057101 -0.85179436 -15.52829552
-0.93556195 4.03317165 -9.72667408
-1.61137938 2.35161090 -9.18982410
1.03065610 -4.99584627 -13.65585709
2.44936824 -3.94147444 -10.16085339
2.45757651 1.31783044 -14.93140316
4.05964994 2.35314465 -14.85967636
-3.08570004 1.75918555 -14.67049980
0.98161811 2.78277922 -9.18276596
2.51258445 3.91175056 -14.95794106
-1.86357546 0.23034225 -14.71739483
3.54486704 3.91275001 -13.60035133
-3.86509442 -0.67579621 -15.63919640
-0.86706257 -1.62719870 -15.61465549
4.03688097 3.27597833 -8.99308491
-2.82989645 4.02925301 -14.84516716
-3.35909104 -1.69996047 -11.09788799
3.93410325 -2.75300598 -15.22697830
2.54659081 0.12920906 -9.42045784
-1.08963871 -0.55095428 -10.33934402
-4.00009060 2.86333847 -11.08289337
1.53302324 -4.02124786 -9.34119606
3.96695638 -1.59188437 -16.53168488
-3.96495438 3.47462273 -11.45320797
3.49657249 2.57986116 -13.06512070
2.02890801 1.91864741 -13.41643524
-3.94445634 -3.05743980 -9.73984337
0.79628813 4.08220530 -16.63763046
-1.62623203 2.36385131 -16.58948135
4.00614071 -3.67178249 -10.58116150
1.38149238 -2.10568714 -16.15340042
-2.70204043 -0.00189274 -15.28157806
2.86483741 0.21180469 -9.09303093
-1.92244542 1.35625803 -9.88240814
-2.72171378 -2.44468498 -13.10624313
-1.36962986 0.86128700 -10.13671398
1.91751218 1.94243693 -12.68724060
1.72126091 -3.90045619 -16.00815582
-2.55946183 0.96809715 -16.30285645
-2.58406830 4.06453180 -10.52846622
2.44913459 3.45843124 -8.93307877
-0.88087475 5.06140089 -13.90425205
-0.34171686 2.18743753 -10.00505733
1.90917885 -1.21511579 -15.80579376
-3.54960966 3.98028469 -15.68482780
-3.88866830 -3.73578787 -12.92116928
-3.98757339 1.32321274 -9.92008018
-3.92959476 3.15049696 -15.87066364
3.90368915 -1.15589046 -10.44270420
-0.79530948 -4.34419203 -11.51988602
3.18906903 1.87594378 -14.41893101
-0.72680604 -3.94019365 -16.27136803
0.78143227 -4.51630878 -14.21951962
4.01686430 2.80672884 -13.98404598
-4.03494310 -2.72386003 -12.19296646
-2.18981647 0.45985770 -14.94791794
-2.29185867 0.85692942 -16.08609200
3.31245160 -4.00990677 -15.26016426
-2.48247218 -1.60338283 -16.79820442
-2.86541748 -0.40397614 -15.24670982
1.58332586 1.73637772 -9.77536964
1.79978955 -2.40708852 -16.76910973
-1.36526346 1.96329927 -15.86928749
3.98574877 -0.76762503 -10.21127987
-1.54074562 0.25200421 -15.62768459
-2.92500782 0.41935965 -15.32398224
0.56619227 -0.20589328 -15.59059525
-3.96288466 -3.37386608 -10.10103703
-1.95842695 -2.07875228 -13.06839085
-1.44530356 4.32727098 -13.33599854
0.28350919 4.05661535 -10.90480423
3.26814604 -0.48212060 -10.54902267
-1.17426074 4.61535835 -11.96701813
3.99705744 -2.64850235 -15.76300907
2.59544349 -3.96387696 -12.53134155
-0.59415793 2.61108112 -9.35776043
3.99157763 -3.83941889 -14.80259323
-0.90352285 5.25462341 -13.46182728
-3.69725537 -2.58561325 -13.14097214
-2.62797308 3.92701745 -14.44161224
-0.51436514 5.29761457 -13.69054127
0.85784531 -0.44146380 -15.55355167
-1.61658216 -1.09135079 -15.56569672
-2.89909482 0.36164612 -16.55953789
-1.51016617 1.34436202 -10.16705132
-3.89152575 0.65206492 -8.91656303
1.85012960 -1.28351283 -12.25095844
-0.15435244 1.07279825 -10.19732189
-3.86203146 0.97603595 -16.42361832
2.61207795 4.04950047 -12.73896217
-0.29515728 0.17670922 -10.27714825
4.12268114 -2.80324650 -16.45360374
-3.97841334 2.99776316 -15.33196640
-2.38889337 0.30008662 -15.80144119
1.71348977 0.41267866 -12.56630325
1.98284841 -3.74610710 -16.91547203
4.08817387 0.56058657 -9.85427475
2.41350245 -1.03696001 -9.66619492
2.62993622 -0.94674683 -9.29501152
2.79921317 -1.06141293 -9.20996952
-3.87972760 -1.79460406 -15.03401089
-2.17563438 1.33387196 -9.63303566
3.95711780 2.69465613 -11.91388607
-0.21248728 3.96333933 -14.68716812
3.91917062 3.74594522 -10.33350563
-3.48755622 2.37106729 -13.92907429
-4.10569239 -2.29273176 -16.40200806
-2.80747962 1.58303237 -16.77315903
3.92932582 -3.39974809 -9.98998547
2.54760933 4.05534792 -9.90563774
4.04610729 3.80188084 -10.85673141
3.81734896 -0.26283395 -10.10567093
3.17813683 -1.48699546 -10.80105019
1.61000073 -4.17867374 -12.70214939
2.68460751 -3.90448141 -13.09508896
-1.51027942 4.07348919 -10.48761940
-3.04698372 -0.17002963 -16.83599663
0.81464666 -5.32687807 -12.85896206
2.10959053 -3.96825933 -15.39374447
0.48507503 2.74849486 -9.26239491
-2.61711407 2.10574222 -16.85808563
1.47027767 -1.79545248 -15.79898071
-2.63706231 1.19819367 -16.62401581
-2.23394060 0.17641570 -15.09450912
-3.49170446 -2.26722264 -16.84689331
-2.28649640 -1.08106625 -10.95743847
4.01446486 3.09445262 -13.01802635
1.70069480 4.01342678 -9.33451080
3.45073462 -1.54103172 -16.79548836
3.89988470 0.15521325 -16.82463837
0.89752287 2.69142270 -9.45680237
-3.46249390 0.56389582 -16.81491852
-1.67887414 -0.80778891 -13.99520683
-2.19165778 -0.08664361 -15.55376625
3.03191137 2.29679918 -13.56718540
0.10256558 4.13612652 -14.55138016
-2.03416014 1.33961999 -14.51389503
2.17091632 -1.18265140 -9.84356213
